ply
		format ascii 1.0
		element vertex 4280
		property float x
		property float y
		property float z
		property uchar red
		property uchar green
		property uchar blue
		end_header
14.000000 -7.500000 96.000000 105 122 131
13.000000 -7.500000 96.000000 82 98 112
12.000000 -7.500000 96.000000 76 95 107
11.000000 -7.500000 96.000000 77 98 113
10.000000 -7.500000 96.000000 103 122 128
9.000000 -7.500000 96.000000 119 138 143
8.000000 -7.500000 96.000000 118 139 145
7.000000 -7.500000 96.000000 109 132 139
-18.000000 -7.500000 96.000000 81 91 85
-43.428570 -17.142857 219.428574 75 79 77
-64.000000 -24.000000 307.200012 52 53 60
-168.000000 -60.000000 768.000000 51 60 64
inf inf -inf 60 75 74
184.000000 60.000000 -768.000000 61 77 79
128.000000 40.000000 -512.000000 63 77 81
100.000000 30.000000 -384.000000 64 75 79
138.666672 40.000000 -512.000000 66 72 77
144.000000 40.000000 -512.000000 69 72 79
224.000000 60.000000 -768.000000 70 77 83
464.000000 120.000000 -1536.000000 67 74 77
inf inf -inf 63 71 76
-496.000000 -120.000000 1536.000000 65 72 79
inf inf -inf 67 74 81
1.491525 0.338983 -4.338983 67 67 78
1.536723 0.338983 -4.338983 64 66 74
1.583756 0.304569 -3.898477 75 70 78
1.419069 0.266075 -3.405765 77 70 78
1.454545 0.266075 -3.405765 74 63 75
1.480176 0.264317 -3.383260 72 61 71
1.508772 0.263158 -3.368421 72 64 72
1.543860 0.263158 -3.368421 78 68 75
37.818180 5.454545 -69.818184 184 145 143
7.709091 1.090909 -13.963636 196 158 154
7.646018 1.061947 -13.592920 200 160 160
7.719298 1.052632 -13.473684 199 157 160
7.724138 1.034483 -13.241380 195 153 155
7.862069 1.034483 -13.241380 183 142 143
29.000000 -6.500000 96.000000 106 101 97
28.000000 -6.500000 96.000000 107 103 104
27.000000 -6.500000 96.000000 131 132 134
26.000000 -6.500000 96.000000 148 149 150
25.000000 -6.500000 96.000000 111 110 124
24.000000 -6.500000 96.000000 87 88 103
23.000000 -6.500000 96.000000 85 87 103
22.000000 -6.500000 96.000000 97 98 117
21.000000 -6.500000 96.000000 128 134 138
20.000000 -6.500000 96.000000 137 146 144
19.000000 -6.500000 96.000000 134 145 145
18.000000 -6.500000 96.000000 113 125 133
17.000000 -6.500000 96.000000 78 94 106
16.000000 -6.500000 96.000000 71 88 96
15.000000 -6.500000 96.000000 74 90 105
14.000000 -6.500000 96.000000 99 118 125
13.000000 -6.500000 96.000000 129 145 145
12.000000 -6.500000 96.000000 130 148 149
11.000000 -6.500000 96.000000 124 141 143
10.000000 -6.500000 96.000000 93 109 121
9.000000 -6.500000 96.000000 72 85 103
8.000000 -6.500000 96.000000 70 84 101
-18.000000 -6.500000 96.000000 81 93 80
-19.000000 -6.500000 96.000000 75 84 78
-45.714287 -14.857142 219.428574 51 56 62
-84.000000 -26.000000 384.000000 47 57 61
-176.000000 -52.000000 768.000000 53 66 69
368.000000 104.000000 -1536.000000 55 65 73
192.000000 52.000000 -768.000000 55 65 75
133.333328 34.666668 -512.000000 54 66 74
138.666672 34.666668 -512.000000 57 67 74
144.000000 34.666668 -512.000000 61 70 75
448.000000 104.000000 -1536.000000 64 73 78
464.000000 104.000000 -1536.000000 66 71 77
inf inf -inf 67 71 78
-496.000000 -104.000000 1536.000000 65 76 79
-512.000000 -104.000000 1536.000000 71 76 81
1.500000 0.295455 -4.363636 74 76 80
1.523810 0.291317 -4.302521 75 77 77
1.513514 0.281081 -4.151351 80 80 79
1.540107 0.278075 -4.106952 82 80 81
1.545692 0.271540 -4.010444 83 79 82
1.575130 0.269430 -3.979275 84 80 82
1.583756 0.263959 -3.898477 90 82 85
1.531101 0.248804 -3.674641 95 85 87
1.494305 0.236902 -3.498861 92 84 90
1.506727 0.233184 -3.443946 88 84 86
1.522124 0.230089 -3.398230 90 85 85
1.557522 0.230089 -3.398230 92 81 85
-400.000000 -52.000000 768.000000 178 147 143
51.000000 6.500000 -96.000000 178 144 140
37.818180 4.727273 -69.818184 180 146 141
7.639640 0.936937 -13.837838 192 159 151
7.646018 0.920354 -13.592920 199 161 159
7.719298 0.912281 -13.473684 198 158 159
7.791304 0.904348 -13.356522 194 154 156
29.000000 -5.500000 96.000000 105 101 98
28.000000 -5.500000 96.000000 106 104 104
27.000000 -5.500000 96.000000 132 134 135
26.000000 -5.500000 96.000000 144 147 145
25.000000 -5.500000 96.000000 94 96 106
24.000000 -5.500000 96.000000 63 67 77
23.000000 -5.500000 96.000000 65 65 78
22.000000 -5.500000 96.000000 87 88 104
21.000000 -5.500000 96.000000 138 145 148
20.000000 -5.500000 96.000000 156 162 162
19.000000 -5.500000 96.000000 151 161 162
18.000000 -5.500000 96.000000 119 129 137
17.000000 -5.500000 96.000000 64 77 91
16.000000 -5.500000 96.000000 54 67 75
15.000000 -5.500000 96.000000 61 71 86
14.000000 -5.500000 96.000000 100 117 123
13.000000 -5.500000 96.000000 140 159 157
12.000000 -5.500000 96.000000 144 163 164
11.000000 -5.500000 96.000000 136 153 156
10.000000 -5.500000 96.000000 90 104 119
9.000000 -5.500000 96.000000 59 69 83
-18.000000 -5.500000 96.000000 79 95 80
-19.000000 -5.500000 96.000000 73 90 79
-20.000000 -5.500000 96.000000 50 60 64
-56.000000 -14.666667 256.000000 41 48 53
-117.333336 -29.333334 512.000000 34 41 48
inf inf -inf 30 36 44
192.000000 44.000000 -768.000000 32 37 46
200.000000 44.000000 -768.000000 31 38 45
208.000000 44.000000 -768.000000 26 38 45
216.000000 44.000000 -768.000000 30 42 46
448.000000 88.000000 -1536.000000 44 53 55
464.000000 88.000000 -1536.000000 45 45 57
inf inf -inf 41 37 51
-496.000000 -88.000000 1536.000000 41 42 51
-512.000000 -88.000000 1536.000000 47 43 54
1.478992 0.246499 -4.302521 47 41 51
1.470270 0.237838 -4.151351 46 45 48
1.497326 0.235294 -4.106952 51 47 52
1.503917 0.229765 -4.010444 55 46 55
1.533679 0.227979 -3.979275 48 45 58
1.575130 0.227979 -3.979275 49 47 60
1.583756 0.223350 -3.898477 60 56 63
1.616162 0.222222 -3.878788 75 65 71
1.569378 0.210526 -3.674641 72 66 75
1.559165 0.204176 -3.563805 71 65 73
1.549550 0.198198 -3.459460 75 66 70
1.585586 0.198198 -3.459460 81 66 69
-196.000000 -22.000000 384.000000 175 146 144
66.666664 7.333333 -128.000000 175 145 146
51.000000 5.500000 -96.000000 175 143 142
39.619049 4.190476 -73.142860 179 145 142
7.639640 0.792793 -13.837838 192 158 154
7.646018 0.778761 -13.592920 198 160 161
7.652174 0.765217 -13.356522 198 156 161
7.724138 0.758621 -13.241380 195 152 158
29.000000 -4.500000 96.000000 105 100 98
28.000000 -4.500000 96.000000 105 104 107
27.000000 -4.500000 96.000000 134 136 138
26.000000 -4.500000 96.000000 144 148 146
25.000000 -4.500000 96.000000 95 98 109
24.000000 -4.500000 96.000000 69 69 84
23.000000 -4.500000 96.000000 70 67 85
22.000000 -4.500000 96.000000 88 91 107
21.000000 -4.500000 96.000000 135 143 144
20.000000 -4.500000 96.000000 152 158 158
19.000000 -4.500000 96.000000 149 158 158
18.000000 -4.500000 96.000000 119 128 135
17.000000 -4.500000 96.000000 71 81 98
16.000000 -4.500000 96.000000 60 70 86
15.000000 -4.500000 96.000000 67 74 93
14.000000 -4.500000 96.000000 104 116 124
13.000000 -4.500000 96.000000 138 156 152
12.000000 -4.500000 96.000000 139 161 159
11.000000 -4.500000 96.000000 130 151 152
10.000000 -4.500000 96.000000 87 105 121
9.000000 -4.500000 96.000000 59 74 92
-17.000000 -4.500000 96.000000 78 93 83
-18.000000 -4.500000 96.000000 80 95 81
-19.000000 -4.500000 96.000000 75 92 81
-20.000000 -4.500000 96.000000 56 63 65
-56.000000 -12.000000 256.000000 44 46 51
-117.333336 -24.000000 512.000000 35 37 45
inf inf -inf 28 33 40
inf inf -inf 35 39 42
200.000000 36.000000 -768.000000 33 40 42
208.000000 36.000000 -768.000000 22 35 42
216.000000 36.000000 -768.000000 26 38 44
448.000000 72.000000 -1536.000000 42 56 58
464.000000 72.000000 -1536.000000 40 46 55
inf inf -inf 31 32 43
496.000000 72.000000 -1536.000000 37 34 44
1.434174 0.201681 -4.302521 40 39 46
1.427027 0.194595 -4.151351 32 35 43
1.454545 0.192513 -4.106952 28 37 37
1.469816 0.188976 -4.031496 39 40 42
1.500000 0.187500 -4.000000 45 40 43
1.525773 0.185567 -3.958763 34 33 39
1.539240 0.182278 -3.888608 34 34 41
1.579747 0.182278 -3.888608 47 45 50
1.608040 0.180905 -3.859297 53 55 57
1.569378 0.172249 -3.674641 48 53 54
1.596200 0.171021 -3.648456 54 48 55
1.549550 0.162162 -3.459460 66 48 53
1.557522 0.159292 -3.398230 74 56 56
1.592920 0.159292 -3.398230 89 69 70
66.666664 6.000000 -128.000000 177 143 147
51.000000 4.500000 -96.000000 179 141 144
39.619049 3.428571 -73.142860 182 143 142
7.571429 0.642857 -13.714286 195 155 155
7.513043 0.626087 -13.356522 201 158 161
7.586207 0.620690 -13.241380 201 156 160
7.529412 0.605042 -12.907563 198 152 157
7.663866 0.605042 -12.907563 184 144 149
29.000000 -3.500000 96.000000 105 98 98
28.000000 -3.500000 96.000000 107 103 111
27.000000 -3.500000 96.000000 135 138 142
26.000000 -3.500000 96.000000 150 152 152
25.000000 -3.500000 96.000000 123 126 131
24.000000 -3.500000 96.000000 109 112 120
23.000000 -3.500000 96.000000 108 110 121
22.000000 -3.500000 96.000000 104 112 121
21.000000 -3.500000 96.000000 108 115 125
20.000000 -3.500000 96.000000 110 117 129
19.000000 -3.500000 96.000000 109 119 132
18.000000 -3.500000 96.000000 107 120 131
17.000000 -3.500000 96.000000 104 118 127
16.000000 -3.500000 96.000000 102 116 122
15.000000 -3.500000 96.000000 102 117 122
14.000000 -3.500000 96.000000 102 116 125
13.000000 -3.500000 96.000000 100 118 125
12.000000 -3.500000 96.000000 97 120 126
11.000000 -3.500000 96.000000 99 119 128
10.000000 -3.500000 96.000000 98 117 126
9.000000 -3.500000 96.000000 98 118 124
-16.000000 -3.500000 96.000000 75 88 89
-17.000000 -3.500000 96.000000 80 91 81
-18.000000 -3.500000 96.000000 83 93 83
-19.000000 -3.500000 96.000000 82 92 84
-20.000000 -3.500000 96.000000 61 67 69
-67.199997 -11.200000 307.200012 44 49 53
-117.333336 -18.666666 512.000000 45 53 54
-368.000000 -56.000000 1536.000000 45 56 58
inf inf -inf 45 61 60
inf inf -inf 44 58 62
416.000000 56.000000 -1536.000000 39 53 60
432.000000 56.000000 -1536.000000 43 55 61
448.000000 56.000000 -1536.000000 51 65 68
464.000000 56.000000 -1536.000000 49 57 65
480.000000 56.000000 -1536.000000 45 46 58
248.000000 28.000000 -768.000000 49 50 58
1.376344 0.150538 -4.129032 51 55 61
1.419355 0.150538 -4.129032 39 50 59
1.462366 0.150538 -4.129032 34 49 57
1.497326 0.149733 -4.106952 46 51 58
1.500000 0.145833 -4.000000 52 52 57
1.521851 0.143959 -3.948586 47 44 52
1.543147 0.142132 -3.898477 49 46 54
1.575758 0.141414 -3.878788 58 53 66
1.370450 0.119914 -3.289079 59 59 67
1.422994 0.121475 -3.331887 54 57 60
1.457701 0.121475 -3.331887 58 56 58
1.482759 0.120690 -3.310345 71 58 60
1.501066 0.119403 -3.275053 80 65 64
1.500000 0.116667 -3.200000 89 74 75
51.000000 3.500000 -96.000000 180 143 139
39.619049 2.666667 -73.142860 181 143 140
7.438597 0.491228 -13.473684 193 154 153
7.448276 0.482759 -13.241380 197 159 160
7.586207 0.482759 -13.241380 197 158 160
7.466667 0.466667 -12.800000 195 153 156
7.600000 0.466667 -12.800000 184 144 147
29.000000 -2.500000 96.000000 101 100 99
28.000000 -2.500000 96.000000 105 105 111
27.000000 -2.500000 96.000000 138 140 143
26.000000 -2.500000 96.000000 159 158 160
25.000000 -2.500000 96.000000 158 157 158
24.000000 -2.500000 96.000000 154 157 157
23.000000 -2.500000 96.000000 151 156 154
22.000000 -2.500000 96.000000 125 132 132
21.000000 -2.500000 96.000000 79 83 96
20.000000 -2.500000 96.000000 65 72 85
19.000000 -2.500000 96.000000 67 75 93
18.000000 -2.500000 96.000000 99 109 120
17.000000 -2.500000 96.000000 138 153 152
16.000000 -2.500000 96.000000 144 161 158
15.000000 -2.500000 96.000000 139 155 152
14.000000 -2.500000 96.000000 101 115 123
13.000000 -2.500000 96.000000 62 78 90
12.000000 -2.500000 96.000000 56 75 85
11.000000 -2.500000 96.000000 67 83 99
10.000000 -2.500000 96.000000 110 127 133
9.000000 -2.500000 96.000000 135 157 155
-16.000000 -2.500000 96.000000 77 90 90
-17.000000 -2.500000 96.000000 81 89 83
-18.000000 -2.500000 96.000000 86 91 86
-19.000000 -2.500000 96.000000 86 92 86
-20.000000 -2.500000 96.000000 64 71 76
-67.199997 -8.000000 307.200012 47 51 59
-176.000000 -20.000000 768.000000 58 66 68
-368.000000 -40.000000 1536.000000 62 81 80
-384.000000 -40.000000 1536.000000 63 83 83
inf inf -inf 65 81 83
inf inf -inf 66 81 81
432.000000 40.000000 -1536.000000 70 81 83
448.000000 40.000000 -1536.000000 70 82 84
464.000000 40.000000 -1536.000000 70 78 82
240.000000 20.000000 -768.000000 74 77 81
124.000000 10.000000 -384.000000 73 79 81
1.376344 0.107527 -4.129032 74 81 81
1.525773 0.103093 -3.958763 77 78 81
1.543147 0.101523 -3.898477 79 78 82
1.333333 0.085470 -3.282051 81 80 87
1.367521 0.085470 -3.282051 80 82 87
1.401709 0.085470 -3.282051 81 81 83
1.435897 0.085470 -3.282051 87 80 81
1.466951 0.085288 -3.275053 89 80 79
1.466667 0.083333 -3.200000 86 79 78
1.500000 0.083333 -3.200000 87 77 80
1.533333 0.083333 -3.200000 121 100 99
39.619049 1.904762 -73.142860 180 141 140
7.438597 0.350877 -13.473684 189 153 152
7.513043 0.347826 -13.356522 197 158 161
7.586207 0.344828 -13.241380 198 157 161
7.593220 0.338983 -13.016949 194 153 157
7.728814 0.338983 -13.016949 183 144 146
29.000000 -1.500000 96.000000 103 101 98
28.000000 -1.500000 96.000000 108 107 111
27.000000 -1.500000 96.000000 143 141 143
26.000000 -1.500000 96.000000 159 159 163
25.000000 -1.500000 96.000000 158 161 166
24.000000 -1.500000 96.000000 159 161 166
23.000000 -1.500000 96.000000 156 160 162
22.000000 -1.500000 96.000000 129 133 135
21.000000 -1.500000 96.000000 77 80 90
20.000000 -1.500000 96.000000 62 68 72
19.000000 -1.500000 96.000000 66 72 82
18.000000 -1.500000 96.000000 102 108 118
17.000000 -1.500000 96.000000 143 157 156
16.000000 -1.500000 96.000000 148 165 166
15.000000 -1.500000 96.000000 142 159 160
14.000000 -1.500000 96.000000 101 115 125
13.000000 -1.500000 96.000000 62 74 85
12.000000 -1.500000 96.000000 57 68 77
11.000000 -1.500000 96.000000 66 77 93
10.000000 -1.500000 96.000000 109 129 133
9.000000 -1.500000 96.000000 137 161 161
8.000000 -1.500000 96.000000 136 163 163
4.000000 -1.500000 96.000000 59 71 82
3.000000 -1.500000 96.000000 71 94 107
2.000000 -1.500000 96.000000 119 146 144
1.000000 -1.500000 96.000000 137 162 161
-16.000000 -1.500000 96.000000 77 89 89
-17.000000 -1.500000 96.000000 80 90 84
-18.000000 -1.500000 96.000000 83 93 89
-19.000000 -1.500000 96.000000 84 94 88
-20.000000 -1.500000 96.000000 66 77 77
-67.199997 -4.800000 307.200012 47 51 58
-117.333336 -8.000000 512.000000 50 54 62
-184.000000 -12.000000 768.000000 45 56 66
-192.000000 -12.000000 768.000000 42 56 68
-200.000000 -12.000000 768.000000 42 57 68
inf inf -inf 48 55 67
inf inf -inf 55 55 71
448.000000 24.000000 -1536.000000 55 62 74
232.000000 12.000000 -768.000000 57 60 75
120.000000 6.000000 -384.000000 60 55 73
124.000000 6.000000 -384.000000 61 59 71
1.562982 0.061697 -3.948586 72 73 81
1.333333 0.051282 -3.282051 74 75 81
1.361702 0.051064 -3.268085 75 80 84
1.401709 0.051282 -3.282051 78 82 83
1.432836 0.051173 -3.275053 86 80 83
1.433333 0.050000 -3.200000 87 79 82
1.466667 0.050000 -3.200000 82 79 84
1.500000 0.050000 -3.200000 85 78 81
1.533333 0.050000 -3.200000 115 97 95
39.619049 1.142857 -73.142860 178 139 141
7.504425 0.212389 -13.592920 189 151 151
7.578948 0.210526 -13.473684 196 158 158
7.652174 0.208696 -13.356522 198 157 158
7.724138 0.206897 -13.241380 193 153 157
7.930435 0.208696 -13.356522 184 144 148
232.000000 6.000000 -384.000000 168 130 136
29.000000 -0.500000 96.000000 104 101 97
28.000000 -0.500000 96.000000 113 108 110
27.000000 -0.500000 96.000000 144 142 145
26.000000 -0.500000 96.000000 154 155 157
25.000000 -0.500000 96.000000 148 151 154
24.000000 -0.500000 96.000000 148 149 152
23.000000 -0.500000 96.000000 145 148 151
22.000000 -0.500000 96.000000 121 129 135
21.000000 -0.500000 96.000000 84 94 106
20.000000 -0.500000 96.000000 77 85 94
19.000000 -0.500000 96.000000 77 87 99
18.000000 -0.500000 96.000000 104 111 122
17.000000 -0.500000 96.000000 131 145 146
16.000000 -0.500000 96.000000 135 151 153
15.000000 -0.500000 96.000000 130 146 151
14.000000 -0.500000 96.000000 100 116 129
13.000000 -0.500000 96.000000 74 90 103
12.000000 -0.500000 96.000000 73 85 98
11.000000 -0.500000 96.000000 78 90 107
10.000000 -0.500000 96.000000 105 126 130
9.000000 -0.500000 96.000000 124 147 146
8.000000 -0.500000 96.000000 124 147 150
7.000000 -0.500000 96.000000 113 135 141
6.000000 -0.500000 96.000000 80 102 115
5.000000 -0.500000 96.000000 70 89 99
4.000000 -0.500000 96.000000 72 88 99
3.000000 -0.500000 96.000000 79 101 113
2.000000 -0.500000 96.000000 108 135 136
1.000000 -0.500000 96.000000 121 146 148
-0.000000 -0.500000 96.000000 121 146 148
-4.000000 -0.500000 96.000000 70 87 105
-5.000000 -0.500000 96.000000 90 110 121
-6.000000 -0.500000 96.000000 116 143 142
-16.000000 -0.500000 96.000000 79 88 90
-17.000000 -0.500000 96.000000 79 89 84
-18.000000 -0.500000 96.000000 81 94 86
-19.000000 -0.500000 96.000000 86 94 85
-20.000000 -0.500000 96.000000 69 81 75
-56.000000 -1.333333 256.000000 43 52 54
-88.000000 -2.000000 384.000000 37 44 50
-122.666664 -2.666667 512.000000 28 35 42
-128.000000 -2.666667 512.000000 28 35 42
-133.333328 -2.666667 512.000000 28 35 43
-208.000000 -4.000000 768.000000 33 29 38
inf inf -inf 35 32 42
448.000000 8.000000 -1536.000000 38 48 55
232.000000 4.000000 -768.000000 38 42 59
120.000000 2.000000 -384.000000 32 29 46
124.000000 2.000000 -384.000000 37 32 41
128.000000 2.000000 -384.000000 40 39 47
1.324841 0.016985 -3.261147 43 45 48
1.358811 0.016985 -3.261147 49 52 57
1.401709 0.017094 -3.282051 52 55 57
1.435897 0.017094 -3.282051 58 52 58
1.433333 0.016667 -3.200000 61 51 59
1.466667 0.016667 -3.200000 63 56 62
1.500000 0.016667 -3.200000 78 69 68
1.533333 0.016667 -3.200000 115 97 89
7.633028 0.073394 -14.091743 179 139 141
7.639640 0.072072 -13.837838 190 150 150
7.714286 0.071429 -13.714286 195 157 158
7.787611 0.070796 -13.592920 196 156 159
7.859649 0.070175 -13.473684 193 153 157
8.070796 0.070796 -13.592920 184 145 148
232.000000 2.000000 -384.000000 167 132 137
29.000000 0.500000 96.000000 106 100 99
28.000000 0.500000 96.000000 114 108 112
27.000000 0.500000 96.000000 144 142 142
26.000000 0.500000 96.000000 143 140 141
25.000000 0.500000 96.000000 108 106 117
24.000000 0.500000 96.000000 98 96 110
23.000000 0.500000 96.000000 96 96 115
22.000000 0.500000 96.000000 106 112 129
21.000000 0.500000 96.000000 125 135 140
20.000000 0.500000 96.000000 129 140 140
19.000000 0.500000 96.000000 127 137 138
18.000000 0.500000 96.000000 109 117 125
17.000000 0.500000 96.000000 86 98 112
16.000000 0.500000 96.000000 85 95 111
15.000000 0.500000 96.000000 86 98 117
14.000000 0.500000 96.000000 104 120 133
13.000000 0.500000 96.000000 119 140 142
12.000000 0.500000 96.000000 120 142 142
11.000000 0.500000 96.000000 114 135 138
10.000000 0.500000 96.000000 89 108 123
9.000000 0.500000 96.000000 75 93 109
8.000000 0.500000 96.000000 72 93 109
7.000000 0.500000 96.000000 77 100 116
6.000000 0.500000 96.000000 102 128 131
5.000000 0.500000 96.000000 115 141 139
4.000000 0.500000 96.000000 116 141 138
3.000000 0.500000 96.000000 102 129 132
2.000000 0.500000 96.000000 75 102 115
1.000000 0.500000 96.000000 74 93 106
-0.000000 0.500000 96.000000 76 94 109
-4.000000 0.500000 96.000000 118 141 140
-5.000000 0.500000 96.000000 99 121 131
-6.000000 0.500000 96.000000 74 96 109
-7.000000 0.500000 96.000000 71 94 102
-16.000000 0.500000 96.000000 78 90 92
-17.000000 0.500000 96.000000 78 88 85
-18.000000 0.500000 96.000000 84 93 85
-19.000000 0.500000 96.000000 84 93 85
-20.000000 0.500000 96.000000 75 83 78
-56.000000 1.333333 256.000000 45 55 58
-70.400002 1.600000 307.200012 35 46 50
-92.000000 2.000000 384.000000 32 38 46
-76.800003 1.600000 307.200012 32 42 47
-100.000000 2.000000 384.000000 33 42 51
-208.000000 4.000000 768.000000 33 34 44
-432.000000 8.000000 1536.000000 34 36 45
inf -inf -inf 43 51 61
464.000000 -8.000000 -1536.000000 41 47 63
120.000000 -2.000000 -384.000000 31 31 47
124.000000 -2.000000 -384.000000 36 38 40
1.300000 -0.016667 -3.200000 50 43 51
1.333333 -0.016667 -3.200000 58 50 55
1.392781 -0.016985 -3.261147 53 49 53
1.426752 -0.016985 -3.261147 55 47 51
1.433333 -0.016667 -3.200000 62 48 56
1.466667 -0.016667 -3.200000 68 57 60
1.500000 -0.016667 -3.200000 87 69 69
1.533333 -0.016667 -3.200000 120 96 92
7.703704 -0.074074 -14.222222 180 139 138
7.709091 -0.072727 -13.963636 191 148 149
7.783784 -0.072072 -13.837838 195 156 158
7.927928 -0.072072 -13.837838 194 155 160
8.000000 -0.071429 -13.714286 192 154 157
8.142858 -0.071429 -13.714286 184 145 149
232.000000 -2.000000 -384.000000 167 132 139
29.000000 1.500000 96.000000 103 100 99
28.000000 1.500000 96.000000 110 109 113
27.000000 1.500000 96.000000 147 143 142
26.000000 1.500000 96.000000 136 131 133
25.000000 1.500000 96.000000 83 81 93
24.000000 1.500000 96.000000 66 67 81
23.000000 1.500000 96.000000 68 69 88
22.000000 1.500000 96.000000 100 103 123
21.000000 1.500000 96.000000 146 154 160
20.000000 1.500000 96.000000 152 163 167
19.000000 1.500000 96.000000 147 159 160
18.000000 1.500000 96.000000 110 119 126
17.000000 1.500000 96.000000 64 75 88
16.000000 1.500000 96.000000 61 69 79
15.000000 1.500000 96.000000 65 77 90
14.000000 1.500000 96.000000 105 123 132
13.000000 1.500000 96.000000 139 161 162
12.000000 1.500000 96.000000 140 164 166
11.000000 1.500000 96.000000 130 152 153
10.000000 1.500000 96.000000 85 101 114
9.000000 1.500000 96.000000 60 70 80
8.000000 1.500000 96.000000 55 70 79
7.000000 1.500000 96.000000 67 84 100
6.000000 1.500000 96.000000 115 136 142
5.000000 1.500000 96.000000 135 161 160
4.000000 1.500000 96.000000 134 162 159
3.000000 1.500000 96.000000 114 141 142
2.000000 1.500000 96.000000 66 88 102
1.000000 1.500000 96.000000 56 71 79
-0.000000 1.500000 96.000000 55 73 81
-1.000000 1.500000 96.000000 80 101 111
-4.000000 1.500000 96.000000 135 159 158
-5.000000 1.500000 96.000000 104 126 136
-6.000000 1.500000 96.000000 62 77 90
-7.000000 1.500000 96.000000 51 72 72
-16.000000 1.500000 96.000000 82 93 94
-17.000000 1.500000 96.000000 80 88 84
-18.000000 1.500000 96.000000 84 91 87
-19.000000 1.500000 96.000000 85 93 86
-20.000000 1.500000 96.000000 77 84 83
-48.000000 3.428571 219.428574 51 56 63
-70.400002 4.800000 307.200012 43 50 56
-73.599998 4.800000 307.200012 49 62 65
-76.800003 4.800000 307.200012 55 68 72
-80.000000 4.800000 307.200012 57 69 74
-208.000000 12.000000 768.000000 54 66 68
-432.000000 24.000000 1536.000000 58 65 70
inf -inf -inf 61 68 78
464.000000 -24.000000 -1536.000000 58 67 74
480.000000 -24.000000 -1536.000000 55 63 64
124.000000 -6.000000 -384.000000 61 66 66
1.300000 -0.050000 -3.200000 70 65 74
1.333333 -0.050000 -3.200000 76 69 74
1.366667 -0.050000 -3.200000 74 67 72
1.400000 -0.050000 -3.200000 73 67 70
1.433333 -0.050000 -3.200000 77 68 73
1.466667 -0.050000 -3.200000 80 70 75
1.500000 -0.050000 -3.200000 89 73 76
1.533333 -0.050000 -3.200000 115 94 92
8.077670 -0.233010 -14.912621 175 138 139
7.925234 -0.224299 -14.355140 187 147 148
7.926606 -0.220183 -14.091743 195 155 156
8.000000 -0.218182 -13.963636 196 155 156
8.072072 -0.216216 -13.837838 193 154 154
8.216216 -0.216216 -13.837838 185 146 146
185.600006 -4.800000 -307.200012 173 132 137
29.000000 2.500000 96.000000 102 101 99
28.000000 2.500000 96.000000 111 111 115
27.000000 2.500000 96.000000 146 145 144
26.000000 2.500000 96.000000 135 130 135
25.000000 2.500000 96.000000 83 81 94
24.000000 2.500000 96.000000 63 69 80
23.000000 2.500000 96.000000 67 70 85
22.000000 2.500000 96.000000 103 106 121
21.000000 2.500000 96.000000 148 155 159
20.000000 2.500000 96.000000 153 162 167
19.000000 2.500000 96.000000 147 158 161
18.000000 2.500000 96.000000 107 120 128
17.000000 2.500000 96.000000 64 78 87
16.000000 2.500000 96.000000 61 71 79
15.000000 2.500000 96.000000 63 78 92
14.000000 2.500000 96.000000 107 124 131
13.000000 2.500000 96.000000 141 159 161
12.000000 2.500000 96.000000 142 162 164
11.000000 2.500000 96.000000 133 152 152
10.000000 2.500000 96.000000 88 102 115
9.000000 2.500000 96.000000 60 73 85
8.000000 2.500000 96.000000 55 72 83
7.000000 2.500000 96.000000 66 85 100
6.000000 2.500000 96.000000 116 135 139
5.000000 2.500000 96.000000 137 160 159
4.000000 2.500000 96.000000 132 161 158
3.000000 2.500000 96.000000 114 140 143
2.000000 2.500000 96.000000 69 89 105
1.000000 2.500000 96.000000 57 72 84
-0.000000 2.500000 96.000000 58 74 85
-1.000000 2.500000 96.000000 82 99 112
-4.000000 2.500000 96.000000 134 158 157
-5.000000 2.500000 96.000000 106 127 137
-6.000000 2.500000 96.000000 64 77 98
-7.000000 2.500000 96.000000 55 71 81
-8.000000 2.500000 96.000000 57 73 86
-16.000000 2.500000 96.000000 83 95 97
-17.000000 2.500000 96.000000 82 88 86
-18.000000 2.500000 96.000000 85 91 87
-19.000000 2.500000 96.000000 84 93 87
-20.000000 2.500000 96.000000 79 87 84
-48.000000 5.714286 219.428574 56 60 64
-70.400002 8.000000 307.200012 47 53 57
-73.599998 8.000000 307.200012 60 74 72
-76.800003 8.000000 307.200012 65 82 85
-80.000000 8.000000 307.200012 68 83 84
-208.000000 20.000000 768.000000 69 82 82
-432.000000 40.000000 1536.000000 69 82 84
inf -inf -inf 71 82 87
464.000000 -40.000000 -1536.000000 72 80 84
480.000000 -40.000000 -1536.000000 72 84 82
165.333328 -13.333333 -512.000000 76 84 86
1.300000 -0.083333 -3.200000 89 87 92
1.333333 -0.083333 -3.200000 93 87 93
1.366667 -0.083333 -3.200000 94 89 91
1.400000 -0.083333 -3.200000 92 90 92
1.433333 -0.083333 -3.200000 90 90 91
1.466667 -0.083333 -3.200000 91 88 91
1.500000 -0.083333 -3.200000 92 81 86
1.533333 -0.083333 -3.200000 113 90 91
8.666667 -0.416667 -16.000000 174 138 140
8.233009 -0.388350 -14.912621 185 146 150
8.074766 -0.373832 -14.355140 196 155 156
8.073395 -0.366972 -14.091743 196 156 156
8.072072 -0.360360 -13.837838 192 154 155
8.216216 -0.360360 -13.837838 184 148 146
154.666672 -6.666667 -256.000000 171 135 136
29.000000 3.500000 96.000000 107 101 99
28.000000 3.500000 96.000000 116 111 116
27.000000 3.500000 96.000000 146 145 145
26.000000 3.500000 96.000000 139 137 143
25.000000 3.500000 96.000000 103 106 116
24.000000 3.500000 96.000000 94 96 109
23.000000 3.500000 96.000000 96 97 109
22.000000 3.500000 96.000000 108 112 121
21.000000 3.500000 96.000000 126 133 141
20.000000 3.500000 96.000000 129 136 145
19.000000 3.500000 96.000000 128 134 147
18.000000 3.500000 96.000000 111 120 132
17.000000 3.500000 96.000000 92 103 112
16.000000 3.500000 96.000000 89 100 108
15.000000 3.500000 96.000000 88 102 111
14.000000 3.500000 96.000000 105 121 126
13.000000 3.500000 96.000000 118 133 141
12.000000 3.500000 96.000000 116 135 141
11.000000 3.500000 96.000000 112 131 137
10.000000 3.500000 96.000000 95 113 122
9.000000 3.500000 96.000000 83 103 111
8.000000 3.500000 96.000000 81 102 110
7.000000 3.500000 96.000000 85 105 116
6.000000 3.500000 96.000000 104 122 130
5.000000 3.500000 96.000000 112 131 139
4.000000 3.500000 96.000000 111 132 136
3.000000 3.500000 96.000000 101 125 132
2.000000 3.500000 96.000000 79 109 119
1.000000 3.500000 96.000000 75 103 112
-0.000000 3.500000 96.000000 82 102 112
-1.000000 3.500000 96.000000 89 113 121
-2.000000 3.500000 96.000000 103 129 134
-3.000000 3.500000 96.000000 110 131 137
-4.000000 3.500000 96.000000 109 131 136
-5.000000 3.500000 96.000000 98 120 128
-6.000000 3.500000 96.000000 84 104 116
-7.000000 3.500000 96.000000 82 102 113
-8.000000 3.500000 96.000000 87 104 115
-16.000000 3.500000 96.000000 82 93 98
-17.000000 3.500000 96.000000 80 89 85
-18.000000 3.500000 96.000000 84 92 87
-19.000000 3.500000 96.000000 83 93 87
-20.000000 3.500000 96.000000 80 90 85
-21.000000 3.500000 96.000000 58 66 66
-70.400002 11.200000 307.200012 44 51 52
-73.599998 11.200000 307.200012 43 52 54
-76.800003 11.200000 307.200012 39 52 56
-100.000000 14.000000 384.000000 41 52 56
-208.000000 28.000000 768.000000 37 50 54
-432.000000 56.000000 1536.000000 37 49 60
448.000000 -56.000000 -1536.000000 49 54 65
232.000000 -28.000000 -768.000000 51 54 68
120.000000 -14.000000 -384.000000 43 52 60
124.000000 -14.000000 -384.000000 46 53 63
-256.000000 28.000000 768.000000 53 53 64
1.300000 -0.116667 -3.200000 60 60 70
1.333333 -0.116667 -3.200000 71 66 76
1.366667 -0.116667 -3.200000 77 68 76
1.400000 -0.116667 -3.200000 68 67 76
1.433333 -0.116667 -3.200000 69 68 75
1.466667 -0.116667 -3.200000 75 68 77
1.500000 -0.116667 -3.200000 82 68 75
1.533333 -0.116667 -3.200000 110 84 84
8.313725 -0.549020 -15.058824 184 144 148
8.074766 -0.523364 -14.355140 194 154 154
8.148149 -0.518519 -14.222222 197 156 155
8.145454 -0.509091 -13.963636 194 153 154
8.290909 -0.509091 -13.963636 184 146 148
132.571426 -8.000000 -219.428574 171 135 137
29.000000 4.500000 96.000000 109 101 98
28.000000 4.500000 96.000000 119 113 117
27.000000 4.500000 96.000000 150 146 151
26.000000 4.500000 96.000000 154 153 158
25.000000 4.500000 96.000000 150 149 151
24.000000 4.500000 96.000000 148 148 151
23.000000 4.500000 96.000000 143 145 148
22.000000 4.500000 96.000000 116 118 125
21.000000 4.500000 96.000000 81 87 103
20.000000 4.500000 96.000000 78 83 98
19.000000 4.500000 96.000000 85 87 108
18.000000 4.500000 96.000000 115 119 133
17.000000 4.500000 96.000000 138 150 151
16.000000 4.500000 96.000000 140 152 152
15.000000 4.500000 96.000000 132 146 143
14.000000 4.500000 96.000000 99 111 120
13.000000 4.500000 96.000000 74 85 98
12.000000 4.500000 96.000000 66 84 93
11.000000 4.500000 96.000000 74 92 103
10.000000 4.500000 96.000000 108 129 129
9.000000 4.500000 96.000000 128 150 146
8.000000 4.500000 96.000000 129 149 148
7.000000 4.500000 96.000000 119 137 139
6.000000 4.500000 96.000000 85 99 113
5.000000 4.500000 96.000000 70 83 93
4.000000 4.500000 96.000000 68 83 93
3.000000 4.500000 96.000000 76 96 109
2.000000 4.500000 96.000000 109 134 136
1.000000 4.500000 96.000000 124 148 148
-0.000000 4.500000 96.000000 125 150 147
-1.000000 4.500000 96.000000 106 135 136
-2.000000 4.500000 96.000000 71 94 111
-3.000000 4.500000 96.000000 66 82 94
-4.000000 4.500000 96.000000 64 83 94
-5.000000 4.500000 96.000000 81 105 111
-6.000000 4.500000 96.000000 119 144 139
-7.000000 4.500000 96.000000 129 154 151
-8.000000 4.500000 96.000000 129 152 152
-16.000000 4.500000 96.000000 81 93 99
-17.000000 4.500000 96.000000 77 90 85
-18.000000 4.500000 96.000000 82 93 86
-19.000000 4.500000 96.000000 84 93 86
-20.000000 4.500000 96.000000 84 92 87
-21.000000 4.500000 96.000000 62 70 72
-70.400002 14.400000 307.200012 42 52 51
-92.000000 18.000000 384.000000 36 43 45
-96.000000 18.000000 384.000000 28 35 43
-100.000000 18.000000 384.000000 26 38 42
-208.000000 36.000000 768.000000 22 33 37
inf -inf -inf 26 31 41
448.000000 -72.000000 -1536.000000 41 42 51
232.000000 -36.000000 -768.000000 38 45 56
240.000000 -36.000000 -768.000000 25 33 40
165.333328 -24.000000 -512.000000 32 34 38
256.000000 -36.000000 -768.000000 38 37 45
1.333333 -0.150000 -3.200000 54 48 54
1.366667 -0.150000 -3.200000 58 49 53
1.400000 -0.150000 -3.200000 49 47 50
1.433333 -0.150000 -3.200000 52 46 49
1.466667 -0.150000 -3.200000 60 52 52
1.500000 -0.150000 -3.200000 70 60 62
1.533333 -0.150000 -3.200000 103 81 81
8.480000 -0.720000 -15.360000 183 144 144
8.074766 -0.672897 -14.355140 191 153 154
8.148149 -0.666667 -14.222222 194 153 153
8.145454 -0.654545 -13.963636 196 150 151
8.216216 -0.648649 -13.837838 186 144 146
132.571426 -10.285714 -219.428574 171 135 136
29.000000 5.500000 96.000000 110 102 100
28.000000 5.500000 96.000000 122 114 119
27.000000 5.500000 96.000000 152 147 152
26.000000 5.500000 96.000000 159 158 162
25.000000 5.500000 96.000000 161 158 162
24.000000 5.500000 96.000000 160 159 163
23.000000 5.500000 96.000000 153 156 158
22.000000 5.500000 96.000000 115 118 123
21.000000 5.500000 96.000000 71 74 87
20.000000 5.500000 96.000000 67 67 79
19.000000 5.500000 96.000000 72 75 91
18.000000 5.500000 96.000000 113 120 131
17.000000 5.500000 96.000000 146 160 162
16.000000 5.500000 96.000000 150 163 168
15.000000 5.500000 96.000000 142 155 156
14.000000 5.500000 96.000000 98 107 118
13.000000 5.500000 96.000000 65 73 82
12.000000 5.500000 96.000000 56 72 74
11.000000 5.500000 96.000000 66 82 92
10.000000 5.500000 96.000000 113 131 135
9.000000 5.500000 96.000000 137 159 158
8.000000 5.500000 96.000000 140 159 159
7.000000 5.500000 96.000000 127 144 145
6.000000 5.500000 96.000000 83 95 105
5.000000 5.500000 96.000000 61 74 76
4.000000 5.500000 96.000000 55 74 78
3.000000 5.500000 96.000000 70 89 102
2.000000 5.500000 96.000000 119 137 142
1.000000 5.500000 96.000000 137 158 159
-0.000000 5.500000 96.000000 134 159 158
-1.000000 5.500000 96.000000 114 139 142
-2.000000 5.500000 96.000000 70 88 103
-3.000000 5.500000 96.000000 55 73 78
-4.000000 5.500000 96.000000 54 74 80
-5.000000 5.500000 96.000000 80 100 106
-6.000000 5.500000 96.000000 127 150 148
-7.000000 5.500000 96.000000 139 162 163
-8.000000 5.500000 96.000000 136 160 164
-16.000000 5.500000 96.000000 82 98 101
-17.000000 5.500000 96.000000 77 93 86
-18.000000 5.500000 96.000000 82 96 87
-19.000000 5.500000 96.000000 84 96 87
-20.000000 5.500000 96.000000 83 93 88
-21.000000 5.500000 96.000000 65 75 78
-70.400002 17.600000 307.200012 44 52 58
-92.000000 22.000000 384.000000 42 48 50
-96.000000 22.000000 384.000000 39 45 53
-100.000000 22.000000 384.000000 35 49 53
-416.000000 88.000000 1536.000000 35 43 48
inf -inf -inf 40 41 51
inf -inf -inf 49 50 59
232.000000 -44.000000 -768.000000 44 56 61
240.000000 -44.000000 -768.000000 32 43 52
248.000000 -44.000000 -768.000000 40 43 53
inf -inf -inf 45 48 59
1.333333 -0.183333 -3.200000 66 57 63
1.366667 -0.183333 -3.200000 67 57 61
1.400000 -0.183333 -3.200000 63 55 56
1.433333 -0.183333 -3.200000 63 56 54
1.466667 -0.183333 -3.200000 69 60 58
1.500000 -0.183333 -3.200000 71 65 69
1.533333 -0.183333 -3.200000 96 83 85
8.565657 -0.888889 -15.515152 182 142 141
8.150944 -0.830189 -14.490566 187 151 153
8.224299 -0.822430 -14.355140 188 152 154
8.220183 -0.807339 -14.091743 190 150 153
8.290909 -0.800000 -13.963636 183 143 147
8.513762 -0.807339 -14.091743 168 133 135
29.000000 6.500000 96.000000 107 103 98
28.000000 6.500000 96.000000 119 115 121
27.000000 6.500000 96.000000 151 149 153
26.000000 6.500000 96.000000 159 157 159
25.000000 6.500000 96.000000 159 155 159
24.000000 6.500000 96.000000 157 155 160
23.000000 6.500000 96.000000 152 152 155
22.000000 6.500000 96.000000 118 115 125
21.000000 6.500000 96.000000 79 74 93
20.000000 6.500000 96.000000 71 69 84
19.000000 6.500000 96.000000 75 77 92
18.000000 6.500000 96.000000 112 119 129
17.000000 6.500000 96.000000 143 156 157
16.000000 6.500000 96.000000 148 160 162
15.000000 6.500000 96.000000 138 152 153
14.000000 6.500000 96.000000 95 109 118
13.000000 6.500000 96.000000 68 76 90
12.000000 6.500000 96.000000 63 74 83
11.000000 6.500000 96.000000 70 85 96
10.000000 6.500000 96.000000 114 129 134
9.000000 6.500000 96.000000 138 155 154
8.000000 6.500000 96.000000 138 156 155
7.000000 6.500000 96.000000 125 143 143
6.000000 6.500000 96.000000 85 97 109
5.000000 6.500000 96.000000 66 77 85
4.000000 6.500000 96.000000 60 77 87
3.000000 6.500000 96.000000 71 92 105
2.000000 6.500000 96.000000 118 135 140
1.000000 6.500000 96.000000 136 153 157
-0.000000 6.500000 96.000000 133 154 155
-1.000000 6.500000 96.000000 116 137 140
-2.000000 6.500000 96.000000 75 92 106
-3.000000 6.500000 96.000000 57 79 83
-4.000000 6.500000 96.000000 60 78 86
-5.000000 6.500000 96.000000 83 99 109
-6.000000 6.500000 96.000000 126 146 146
-7.000000 6.500000 96.000000 138 158 160
-16.000000 6.500000 96.000000 86 103 106
-17.000000 6.500000 96.000000 79 95 88
-18.000000 6.500000 96.000000 82 97 89
-19.000000 6.500000 96.000000 84 97 86
-20.000000 6.500000 96.000000 87 93 85
-21.000000 6.500000 96.000000 74 79 79
-58.666668 17.333334 256.000000 50 54 59
-73.599998 20.799999 307.200012 52 59 57
-76.800003 20.799999 307.200012 63 75 71
-100.000000 26.000000 384.000000 66 78 77
-416.000000 104.000000 1536.000000 68 76 76
inf -inf -inf 68 77 77
inf -inf -inf 71 76 76
inf -inf -inf 67 76 72
480.000000 -104.000000 -1536.000000 67 76 74
496.000000 -104.000000 -1536.000000 71 76 80
inf -inf -inf 70 79 80
1.300000 -0.216667 -3.200000 80 79 83
1.333333 -0.216667 -3.200000 86 81 85
1.366667 -0.216667 -3.200000 86 81 84
1.400000 -0.216667 -3.200000 87 82 81
1.433333 -0.216667 -3.200000 87 82 79
1.466667 -0.216667 -3.200000 88 79 80
1.500000 -0.216667 -3.200000 81 75 80
1.533333 -0.216667 -3.200000 93 83 87
9.674418 -1.209302 -17.860466 177 138 136
8.653061 -1.061224 -15.673470 182 140 138
8.228572 -0.990476 -14.628572 189 147 150
8.224299 -0.971963 -14.355140 188 149 154
8.296296 -0.962963 -14.222222 184 149 151
8.366973 -0.954128 -14.091743 173 141 144
8.592592 -0.962963 -14.222222 144 113 125
29.000000 7.500000 96.000000 107 102 101
28.000000 7.500000 96.000000 119 115 121
27.000000 7.500000 96.000000 151 146 151
26.000000 7.500000 96.000000 145 141 145
25.000000 7.500000 96.000000 126 123 134
24.000000 7.500000 96.000000 122 120 136
23.000000 7.500000 96.000000 120 120 137
22.000000 7.500000 96.000000 115 115 129
21.000000 7.500000 96.000000 110 109 120
20.000000 7.500000 96.000000 109 110 118
19.000000 7.500000 96.000000 109 112 117
18.000000 7.500000 96.000000 113 115 126
17.000000 7.500000 96.000000 111 122 134
16.000000 7.500000 96.000000 113 123 133
15.000000 7.500000 96.000000 109 123 133
14.000000 7.500000 96.000000 104 119 125
13.000000 7.500000 96.000000 105 114 120
12.000000 7.500000 96.000000 103 114 117
11.000000 7.500000 96.000000 103 114 117
10.000000 7.500000 96.000000 105 117 123
9.000000 7.500000 96.000000 106 119 127
8.000000 7.500000 96.000000 106 119 131
7.000000 7.500000 96.000000 99 118 130
6.000000 7.500000 96.000000 95 115 124
5.000000 7.500000 96.000000 99 114 121
4.000000 7.500000 96.000000 98 114 121
3.000000 7.500000 96.000000 93 115 122
2.000000 7.500000 96.000000 98 115 127
1.000000 7.500000 96.000000 101 116 129
-0.000000 7.500000 96.000000 100 117 128
-1.000000 7.500000 96.000000 98 119 127
-2.000000 7.500000 96.000000 96 119 124
-3.000000 7.500000 96.000000 96 120 121
-4.000000 7.500000 96.000000 99 120 122
-5.000000 7.500000 96.000000 97 118 125
-6.000000 7.500000 96.000000 98 117 128
-7.000000 7.500000 96.000000 102 117 128
-16.000000 7.500000 96.000000 93 104 110
-17.000000 7.500000 96.000000 84 96 89
-18.000000 7.500000 96.000000 87 97 88
-19.000000 7.500000 96.000000 88 97 87
-20.000000 7.500000 96.000000 90 93 86
-21.000000 7.500000 96.000000 78 82 80
-22.000000 7.500000 96.000000 52 57 59
-61.333332 20.000000 256.000000 53 58 61
-76.800003 24.000000 307.200012 61 75 76
-80.000000 24.000000 307.200012 63 77 84
-208.000000 60.000000 768.000000 65 77 85
-432.000000 120.000000 1536.000000 68 78 83
-448.000000 120.000000 1536.000000 71 78 81
-464.000000 120.000000 1536.000000 71 77 80
inf -inf -inf 73 76 82
496.000000 -120.000000 -1536.000000 75 77 84
inf -inf -inf 73 80 83
-176.000000 40.000000 512.000000 71 81 84
1.300000 -0.250000 -3.200000 82 81 87
1.333333 -0.250000 -3.200000 88 83 89
1.366667 -0.250000 -3.200000 91 84 90
1.400000 -0.250000 -3.200000 93 84 87
1.433333 -0.250000 -3.200000 91 85 86
1.466667 -0.250000 -3.200000 91 85 84
1.500000 -0.250000 -3.200000 88 81 82
1.533333 -0.250000 -3.200000 94 83 85
9.674418 -1.395349 -17.860466 175 137 136
8.742268 -1.237113 -15.835052 176 138 137
8.388350 -1.165049 -14.912621 185 144 146
8.301887 -1.132075 -14.490566 187 145 150
8.373832 -1.121495 -14.355140 182 144 148
8.444445 -1.111111 -14.222222 163 135 137
8.754717 -1.132075 -14.490566 108 93 105
29.000000 8.500000 96.000000 110 101 103
28.000000 8.500000 96.000000 121 115 121
27.000000 8.500000 96.000000 146 144 143
26.000000 8.500000 96.000000 121 119 122
25.000000 8.500000 96.000000 82 81 92
24.000000 8.500000 96.000000 74 77 87
23.000000 8.500000 96.000000 79 81 98
22.000000 8.500000 96.000000 113 118 129
21.000000 8.500000 96.000000 144 150 152
20.000000 8.500000 96.000000 149 154 156
19.000000 8.500000 96.000000 144 150 151
18.000000 8.500000 96.000000 109 108 122
17.000000 8.500000 96.000000 75 79 92
16.000000 8.500000 96.000000 72 78 88
15.000000 8.500000 96.000000 78 86 101
14.000000 8.500000 96.000000 115 130 132
13.000000 8.500000 96.000000 141 155 154
12.000000 8.500000 96.000000 142 156 154
11.000000 8.500000 96.000000 134 146 142
10.000000 8.500000 96.000000 90 103 112
9.000000 8.500000 96.000000 66 79 91
8.000000 8.500000 96.000000 67 78 90
7.000000 8.500000 96.000000 74 90 104
6.000000 8.500000 96.000000 111 133 134
5.000000 8.500000 96.000000 133 152 152
4.000000 8.500000 96.000000 135 152 153
3.000000 8.500000 96.000000 119 137 141
2.000000 8.500000 96.000000 78 93 110
1.000000 8.500000 96.000000 64 79 88
-0.000000 8.500000 96.000000 64 79 87
-1.000000 8.500000 96.000000 76 99 108
-2.000000 8.500000 96.000000 118 144 141
-3.000000 8.500000 96.000000 133 158 158
-4.000000 8.500000 96.000000 133 158 157
-5.000000 8.500000 96.000000 113 137 141
-6.000000 8.500000 96.000000 72 89 105
-7.000000 8.500000 96.000000 63 76 89
-16.000000 8.500000 96.000000 94 102 111
-17.000000 8.500000 96.000000 85 93 90
-18.000000 8.500000 96.000000 88 96 90
-19.000000 8.500000 96.000000 89 97 90
-20.000000 8.500000 96.000000 91 94 89
-21.000000 8.500000 96.000000 80 86 82
-22.000000 8.500000 96.000000 53 60 63
-23.000000 8.500000 96.000000 46 48 59
-64.000000 22.666666 256.000000 43 45 59
-80.000000 27.200001 307.200012 41 43 59
-104.000000 34.000000 384.000000 42 41 60
-216.000000 68.000000 768.000000 44 41 57
-224.000000 68.000000 768.000000 49 46 57
-232.000000 68.000000 768.000000 50 54 64
-480.000000 136.000000 1536.000000 45 46 62
496.000000 -136.000000 -1536.000000 43 45 59
512.000000 -136.000000 -1536.000000 41 49 59
-176.000000 45.333332 512.000000 41 49 61
1.300000 -0.283333 -3.200000 57 49 60
1.333333 -0.283333 -3.200000 66 55 65
1.366667 -0.283333 -3.200000 69 61 67
1.400000 -0.283333 -3.200000 66 57 66
1.433333 -0.283333 -3.200000 65 56 67
1.466667 -0.283333 -3.200000 67 55 64
1.500000 -0.283333 -3.200000 72 61 66
1.533333 -0.283333 -3.200000 93 74 76
9.674418 -1.581395 -17.860466 172 137 135
8.833333 -1.416667 -16.000000 173 138 137
8.640000 -1.360000 -15.360000 180 143 144
8.543690 -1.320388 -14.912621 183 144 145
8.452830 -1.283019 -14.490566 179 140 142
8.603773 -1.283019 -14.490566 159 129 134
9.009708 -1.320388 -14.912621 104 89 100
29.000000 9.500000 96.000000 108 102 103
28.000000 9.500000 96.000000 121 116 123
27.000000 9.500000 96.000000 143 143 140
26.000000 9.500000 96.000000 112 113 114
25.000000 9.500000 96.000000 73 73 79
24.000000 9.500000 96.000000 67 67 73
23.000000 9.500000 96.000000 72 75 85
22.000000 9.500000 96.000000 114 121 126
21.000000 9.500000 96.000000 151 156 158
20.000000 9.500000 96.000000 155 159 164
19.000000 9.500000 96.000000 148 151 157
18.000000 9.500000 96.000000 107 106 118
17.000000 9.500000 96.000000 72 74 81
16.000000 9.500000 96.000000 65 71 76
15.000000 9.500000 96.000000 73 81 93
14.000000 9.500000 96.000000 117 131 135
13.000000 9.500000 96.000000 144 160 162
12.000000 9.500000 96.000000 146 160 165
11.000000 9.500000 96.000000 135 147 151
10.000000 9.500000 96.000000 90 98 113
9.000000 9.500000 96.000000 65 72 84
8.000000 9.500000 96.000000 62 73 79
7.000000 9.500000 96.000000 71 88 97
6.000000 9.500000 96.000000 114 136 136
5.000000 9.500000 96.000000 138 157 158
4.000000 9.500000 96.000000 139 157 159
3.000000 9.500000 96.000000 125 140 144
2.000000 9.500000 96.000000 80 91 105
1.000000 9.500000 96.000000 61 75 79
-0.000000 9.500000 96.000000 61 75 78
-1.000000 9.500000 96.000000 78 93 103
-2.000000 9.500000 96.000000 123 144 145
-3.000000 9.500000 96.000000 139 162 164
-4.000000 9.500000 96.000000 137 162 162
-5.000000 9.500000 96.000000 117 140 144
-6.000000 9.500000 96.000000 70 87 99
-7.000000 9.500000 96.000000 57 73 77
-16.000000 9.500000 96.000000 95 105 112
-17.000000 9.500000 96.000000 85 95 92
-18.000000 9.500000 96.000000 88 96 90
-19.000000 9.500000 96.000000 89 96 89
-20.000000 9.500000 96.000000 90 94 89
-21.000000 9.500000 96.000000 85 88 85
-22.000000 9.500000 96.000000 61 63 68
-23.000000 9.500000 96.000000 45 49 56
-24.000000 9.500000 96.000000 43 47 54
-66.666664 25.333334 256.000000 39 46 53
-83.199997 30.400000 307.200012 39 41 54
-108.000000 38.000000 384.000000 42 37 50
-149.333328 50.666668 512.000000 44 43 51
-154.666672 50.666668 512.000000 49 56 63
-480.000000 152.000000 1536.000000 39 47 58
496.000000 -152.000000 -1536.000000 35 44 51
512.000000 -152.000000 -1536.000000 41 47 53
-132.000000 38.000000 384.000000 42 48 56
1.300000 -0.316667 -3.200000 58 46 56
1.333333 -0.316667 -3.200000 67 55 60
1.366667 -0.316667 -3.200000 65 58 61
1.400000 -0.316667 -3.200000 60 53 59
1.433333 -0.316667 -3.200000 61 51 60
1.466667 -0.316667 -3.200000 65 51 60
1.500000 -0.316667 -3.200000 73 60 62
1.533333 -0.316667 -3.200000 92 73 70
9.674418 -1.767442 -17.860466 172 137 135
8.833333 -1.583333 -16.000000 171 136 134
8.727273 -1.535354 -15.515152 174 139 138
8.800000 -1.520000 -15.360000 174 138 139
8.784314 -1.490196 -15.058824 171 134 135
8.854369 -1.475728 -14.912621 153 123 129
9.188119 -1.504951 -15.207921 105 88 96
29.000000 10.500000 96.000000 108 98 100
28.000000 10.500000 96.000000 124 115 124
27.000000 10.500000 96.000000 147 145 141
26.000000 10.500000 96.000000 115 114 116
25.000000 10.500000 96.000000 78 77 87
24.000000 10.500000 96.000000 74 70 82
23.000000 10.500000 96.000000 81 78 89
22.000000 10.500000 96.000000 119 120 125
21.000000 10.500000 96.000000 149 152 155
20.000000 10.500000 96.000000 152 154 159
19.000000 10.500000 96.000000 145 147 150
18.000000 10.500000 96.000000 104 108 119
17.000000 10.500000 96.000000 75 81 90
16.000000 10.500000 96.000000 73 78 87
15.000000 10.500000 96.000000 81 87 100
14.000000 10.500000 96.000000 119 129 135
13.000000 10.500000 96.000000 142 154 159
12.000000 10.500000 96.000000 143 153 160
11.000000 10.500000 96.000000 132 143 148
10.000000 10.500000 96.000000 93 100 115
9.000000 10.500000 96.000000 71 78 93
8.000000 10.500000 96.000000 68 80 90
7.000000 10.500000 96.000000 76 92 102
6.000000 10.500000 96.000000 115 132 134
5.000000 10.500000 96.000000 133 152 152
4.000000 10.500000 96.000000 134 152 155
3.000000 10.500000 96.000000 121 138 142
2.000000 10.500000 96.000000 83 97 110
1.000000 10.500000 96.000000 68 82 89
-0.000000 10.500000 96.000000 68 80 90
-1.000000 10.500000 96.000000 83 95 109
-2.000000 10.500000 96.000000 120 138 142
-3.000000 10.500000 96.000000 134 154 157
-4.000000 10.500000 96.000000 133 155 156
-5.000000 10.500000 96.000000 114 138 141
-6.000000 10.500000 96.000000 74 93 106
-7.000000 10.500000 96.000000 68 80 88
-16.000000 10.500000 96.000000 101 107 113
-17.000000 10.500000 96.000000 89 95 90
-18.000000 10.500000 96.000000 92 97 89
-19.000000 10.500000 96.000000 93 96 89
-20.000000 10.500000 96.000000 92 95 88
-21.000000 10.500000 96.000000 91 91 88
-22.000000 10.500000 96.000000 67 70 71
-23.000000 10.500000 96.000000 48 53 55
-24.000000 10.500000 96.000000 47 55 55
-25.000000 10.500000 96.000000 49 58 63
-83.199997 33.599998 307.200012 47 54 64
-108.000000 42.000000 384.000000 51 51 61
-112.000000 42.000000 384.000000 51 57 64
-154.666672 56.000000 512.000000 55 62 68
-480.000000 168.000000 1536.000000 49 55 63
inf -inf -inf 48 55 63
inf -inf -inf 53 59 66
-88.000000 28.000000 256.000000 55 60 69
1.300000 -0.350000 -3.200000 67 57 70
1.333333 -0.350000 -3.200000 75 69 71
1.366667 -0.350000 -3.200000 75 69 71
1.400000 -0.350000 -3.200000 73 65 68
1.433333 -0.350000 -3.200000 72 65 68
1.466667 -0.350000 -3.200000 74 66 71
1.500000 -0.350000 -3.200000 76 66 72
1.533333 -0.350000 -3.200000 86 74 72
16.653061 -3.428571 -31.346939 170 140 139
9.674418 -1.953488 -17.860466 169 137 135
8.926316 -1.768421 -16.168421 167 133 131
8.907216 -1.731959 -15.835052 164 132 130
8.888889 -1.696970 -15.515152 164 129 130
8.960000 -1.680000 -15.360000 159 125 127
9.029703 -1.663366 -15.207921 141 117 117
9.373737 -1.696970 -15.515152 98 87 89
29.000000 11.500000 96.000000 104 92 95
28.000000 11.500000 96.000000 125 115 123
27.000000 11.500000 96.000000 152 147 149
26.000000 11.500000 96.000000 140 135 139
25.000000 11.500000 96.000000 122 118 125
24.000000 11.500000 96.000000 119 116 122
